ply
format ascii 1.0
element vertex 711
property float x
property float y
property float z
property float nx
property float ny
property float nz
property uchar red
property uchar green
property uchar blue
end_header
-0.989510 -0.236458 0.460982 -0.972615 -0.232421 0.000000 186 9 238
-0.944669 -0.254721 0.451571 -0.965516 -0.260343 0.000000 185 10 246
-0.948258 -0.286944 0.497129 -0.957138 -0.289631 0.000000 190 11 68
-0.929959 -0.372222 0.520073 -0.928395 -0.371596 0.000000 193 15 138
-0.904435 -0.422277 0.488456 -0.906103 -0.423056 0.000000 189 17 115
-0.872397 -0.479784 0.500247 -0.876231 -0.481892 0.000000 191 20 99
-0.866210 -0.511895 0.484368 -0.860907 -0.508762 0.000000 189 21 166
-0.849617 -0.563205 0.491891 -0.833499 -0.552521 0.000000 190 23 250
-0.826228 -0.562509 0.466835 -0.826613 -0.562771 0.000000 187 24 124
-0.793105 -0.641530 0.485052 -0.777488 -0.628898 0.000000 189 27 255
-0.773662 -0.672714 0.488856 -0.754623 -0.656159 0.000000 189 29 32
-0.702370 -0.676494 0.489182 -0.720250 -0.693715 0.000000 189 31 226
-0.656652 -0.721185 0.467903 -0.673250 -0.739415 0.000000 187 33 227
-0.662468 -0.788281 0.511574 -0.643369 -0.765556 0.000000 192 35 60
-0.572063 -0.805426 0.512126 -0.579063 -0.815283 0.000000 192 38 50
-0.554565 -0.810830 0.527494 -0.564536 -0.825408 0.000000 194 39 14
-0.502118 -0.822489 0.513665 -0.521061 -0.853519 0.000000 192 41 152
-0.470945 -0.874937 0.453091 -0.473963 -0.880545 0.000000 185 43 86
-0.459461 -0.885024 0.489052 -0.460759 -0.887525 0.000000 189 44 109
-0.384360 -0.927649 0.484667 -0.382782 -0.923839 0.000000 189 47 153
-0.304876 -0.944718 0.519607 -0.307120 -0.951671 0.000000 193 51 80
-0.273995 -0.978086 0.494539 -0.269749 -0.962931 0.000000 190 52 227
-0.196078 -0.972277 0.468640 -0.197689 -0.980265 0.000000 187 55 75
-0.188514 -0.969879 0.476792 -0.190798 -0.981629 0.000000 188 55 51
-0.163234 -0.998655 0.470257 -0.161313 -0.986903 0.000000 187 57 203
-0.133048 -0.983272 0.453230 -0.134089 -0.990969 0.000000 185 58 77
-0.013499 -1.002571 0.465576 -0.013463 -0.999909 0.000000 186 63 144
0.040806 -1.012122 0.494044 0.040285 -0.999188 0.000000 190 65 210
0.081362 -1.011810 0.491194 0.080154 -0.996783 0.000000 190 67 223
0.081887 -1.036877 0.454928 0.078729 -0.996896 0.000000 185 66 127
0.185396 -0.981018 0.464940 0.185696 -0.982607 0.000000 186 71 117
0.226667 -0.983978 0.493688 0.224478 -0.974479 0.000000 190 72 189
0.250652 -0.962404 0.484212 0.252036 -0.967718 0.000000 189 74 92
0.362760 -0.945791 0.465287 0.358114 -0.933678 0.000000 186 78 210
0.373414 -0.932966 0.511464 0.371586 -0.928399 0.000000 192 79 158
0.398146 -0.916348 0.467275 0.398502 -0.917168 0.000000 187 80 121
0.433410 -0.865386 0.483464 0.447806 -0.894131 0.000000 189 82 179
0.475100 -0.907614 0.466327 0.463764 -0.885959 0.000000 186 83 27
0.552112 -0.802423 0.478215 0.566840 -0.823828 0.000000 188 88 218
0.627846 -0.845659 0.462032 0.596105 -0.802906 0.000000 186 89 210
0.606404 -0.765477 0.482256 0.620955 -0.783846 0.000000 188 90 235
0.646621 -0.709269 0.496911 0.673717 -0.738990 0.000000 190 93 128
0.657404 -0.736792 0.514235 0.665764 -0.746162 0.000000 193 93 47
0.770906 -0.661912 0.520243 0.758704 -0.651435 0.000000 193 98 230
0.765864 -0.654914 0.506682 0.760012 -0.649909 0.000000 192 98 176
0.804193 -0.590613 0.470158 0.805988 -0.591931 0.000000 187 101 113
0.811344 -0.570850 0.504598 0.817852 -0.575429 0.000000 191 102 76
0.820377 -0.519406 0.501132 0.844896 -0.534930 0.000000 191 104 199
0.883666 -0.491764 0.488777 0.873805 -0.486276 0.000000 189 106 199
0.868149 -0.456309 0.498491 0.885175 -0.465258 0.000000 191 107 4
0.929450 -0.407858 0.475337 0.915714 -0.401830 0.000000 188 110 223
0.942117 -0.355127 0.468046 0.935729 -0.352719 0.000000 187 112 171
0.966888 -0.294243 0.458975 0.956681 -0.291137 0.000000 186 115 195
0.966532 -0.230406 0.482174 0.972743 -0.231886 0.000000 188 118 86
0.940326 -0.204758 0.497638 0.977103 -0.212766 0.000000 190 118 144
1.025668 -0.133233 0.452158 0.991668 -0.128817 0.000000 185 122 90
1.005652 -0.060819 0.528443 0.998176 -0.060366 0.000000 194 125 175
0.979879 -0.071623 0.497317 0.997339 -0.072899 0.000000 190 124 15
0.997145 -0.032758 0.552278 0.999461 -0.032834 0.000000 197 126 112
1.010179 0.043812 0.563245 0.999061 0.043330 0.000000 199 129 198
0.979025 0.120220 0.528000 0.992545 0.121880 0.000000 194 132 40
0.998595 0.155066 0.536378 0.988157 0.153445 0.000000 195 133 194
0.985336 0.207786 0.560173 0.978480 0.206341 0.000000 198 135 172
0.966831 0.283777 0.557466 0.959522 0.281632 0.000000 198 139 176
0.967575 0.280011 0.541055 0.960585 0.277988 0.000000 196 138 173
0.942477 0.355255 0.559209 0.935732 0.352713 0.000000 198 142 173
0.922928 0.419376 0.556281 0.910417 0.413691 0.000000 198 144 215
0.912894 0.441457 0.555468 0.900262 0.435349 0.000000 198 145 216
0.874990 0.511094 0.568470 0.863485 0.504374 0.000000 199 148 212
0.833437 0.553954 0.532916 0.832820 0.553544 0.000000 195 151 132
0.803858 0.573790 0.539769 0.813922 0.580974 0.000000 196 152 48
0.783272 0.593741 0.526013 0.796919 0.604086 0.000000 194 153 18
0.754718 0.691946 0.495795 0.737095 0.675789 0.000000 190 157 23
0.727263 0.674963 0.531137 0.732970 0.680261 0.000000 195 157 77
0.675773 0.685602 0.517416 0.701983 0.712194 0.000000 193 159 146
0.668855 0.759557 0.532616 0.660876 0.750495 0.000000 195 161 204
0.588701 0.791841 0.510371 0.596635 0.802513 0.000000 192 165 42
0.567277 0.844294 0.511247 0.557701 0.830042 0.000000 192 167 236
0.566293 0.829508 0.568288 0.563826 0.825894 0.000000 199 166 155
0.504980 0.839201 0.538728 0.515591 0.856835 0.000000 196 169 253
0.490180 0.888586 0.541387 0.483021 0.875609 0.000000 196 170 221
0.408772 0.917080 0.544882 0.407121 0.913374 0.000000 196 174 153
0.386454 0.923101 0.572677 0.386171 0.922427 0.000000 200 175 132
0.284483 0.972001 0.538705 0.280894 0.959739 0.000000 196 179 208
0.311074 0.974321 0.567670 0.304147 0.952625 0.000000 199 178 16
0.187276 0.963387 0.517899 0.190822 0.981625 0.000000 193 183 9
0.183399 0.991194 0.525784 0.181941 0.983310 0.000000 194 183 178
0.124438 1.005972 0.560424 0.122764 0.992436 0.000000 198 186 214
0.045286 0.978096 0.536688 0.046251 0.998930 0.000000 195 189 251
-0.011339 0.974468 0.546613 -0.011636 0.999932 0.000000 197 191 222
-0.016253 0.982444 0.561029 -0.016541 0.999863 0.000000 199 191 16
-0.075372 0.981728 0.548138 -0.076550 0.997066 0.000000 197 194 29
-0.128234 0.981817 0.512339 -0.129509 0.991578 0.000000 192 196 64
-0.180282 1.005055 0.564987 -0.176557 0.984290 0.000000 199 198 5
-0.247141 0.930999 0.543832 -0.256571 0.966525 0.000000 196 201 150
-0.345656 0.966380 0.545944 -0.336786 0.941581 0.000000 197 205 39
-0.343285 0.910971 0.538470 -0.352627 0.935764 0.000000 196 205 215
-0.367871 0.923583 0.526445 -0.370035 0.929018 0.000000 194 206 90
-0.427097 0.882514 0.547433 -0.435622 0.900130 0.000000 197 209 2
-0.471793 0.845633 0.518965 -0.487217 0.873281 0.000000 193 211 182
-0.520961 0.844900 0.531600 -0.524845 0.851198 0.000000 195 213 80
-0.598326 0.806763 0.574169 -0.595692 0.803213 0.000000 200 217 155
-0.570711 0.815908 0.565416 -0.573177 0.819432 0.000000 199 216 100
-0.648457 0.778286 0.584921 -0.640117 0.768277 0.000000 202 219 210
-0.649238 0.751921 0.534569 -0.653534 0.756897 0.000000 195 220 85
-0.708346 0.689896 0.502173 -0.716375 0.697715 0.000000 191 223 56
-0.719359 0.669783 0.513339 -0.731876 0.681438 0.000000 192 224 18
-0.781221 0.625865 0.530262 -0.780436 0.625236 0.000000 195 227 133
-0.812231 0.585211 0.502175 -0.811343 0.584571 0.000000 191 229 134
-0.815234 0.524968 0.504726 -0.840761 0.541406 0.000000 191 231 190
-0.840631 0.502042 0.528626 -0.858544 0.512740 0.000000 194 233 251
-0.928348 0.429564 0.554067 -0.907551 0.419941 0.000000 198 237 17
-0.878369 0.439233 0.553130 -0.894407 0.447254 0.000000 198 236 13
-0.905059 0.386443 0.499110 -0.919674 0.392683 0.000000 191 238 26
-0.958944 0.313344 0.516101 -0.950541 0.310599 0.000000 193 242 183
-0.965044 0.307308 0.544959 -0.952855 0.303426 0.000000 196 242 209
-0.975926 0.213362 0.524810 -0.976925 0.213581 0.000000 194 246 120
-0.983880 0.168167 0.536110 -0.985705 0.168479 0.000000 195 248 115
-1.001859 0.097000 0.543825 -0.995346 0.096370 0.000000 196 251 169
-0.985163 0.075436 0.526337 -0.997081 0.076348 0.000000 194 251 51
-0.971639 0.011521 0.549771 -0.999930 0.011857 0.000000 197 254 204
-1.033274 -0.053595 0.541512 -0.998658 -0.051799 0.000000 196 2 92
-1.000830 -0.079396 0.529868 -0.996868 -0.079082 0.000000 195 3 152
-1.007832 -0.108384 0.513847 -0.994267 -0.106926 0.000000 193 4 214
-0.977637 -0.148150 0.498877 -0.988712 -0.149828 0.000000 191 6 56
-0.992393 -0.218656 0.553340 -0.976576 -0.215171 0.000000 198 8 230
-0.938291 -0.294514 0.512261 -0.954104 -0.299477 0.000000 192 12 21
-0.965782 -0.349352 0.550257 -0.940368 -0.340159 0.000000 197 14 43
-0.916245 -0.386511 0.534378 -0.921375 -0.388675 0.000000 195 16 92
-0.918953 -0.392515 0.522167 -0.919623 -0.392801 0.000000 194 16 122
-0.855374 -0.480933 0.556129 -0.871669 -0.490094 0.000000 198 20 8
-0.839583 -0.504946 0.545115 -0.856954 -0.515393 0.000000 197 21 255
-0.834240 -0.556523 0.563856 -0.831883 -0.554951 0.000000 199 23 145
-0.832588 -0.543711 0.526582 -0.837280 -0.546775 0.000000 194 23 91
-0.798695 -0.619337 0.543586 -0.790248 -0.612787 0.000000 196 26 195
-0.707028 -0.683346 0.557202 -0.719046 -0.694962 0.000000 198 31 20
-0.716490 -0.685844 0.539662 -0.722387 -0.691489 0.000000 196 30 75
-0.676512 -0.725372 0.554577 -0.682048 -0.731308 0.000000 198 33 75
-0.619775 -0.800716 0.557898 -0.612090 -0.790788 0.000000 198 37 207
-0.566791 -0.793240 0.551296 -0.581368 -0.813641 0.000000 197 38 224
-0.553745 -0.850845 0.528703 -0.545470 -0.838130 0.000000 194 40 224
-0.547112 -0.842490 0.530327 -0.544634 -0.838674 0.000000 195 40 156
-0.496246 -0.871756 0.549753 -0.494710 -0.869058 0.000000 197 42 147
-0.402311 -0.873578 0.550161 -0.418305 -0.908307 0.000000 197 46 140
-0.372717 -0.896573 0.522009 -0.383865 -0.923389 0.000000 194 47 199
-0.316065 -0.917369 0.559797 -0.325743 -0.945458 0.000000 198 50 195
-0.315166 -0.951117 0.526525 -0.314545 -0.949243 0.000000 194 50 140
-0.238644 -0.967266 0.572473 -0.239537 -0.970887 0.000000 200 53 103
-0.170370 -0.964518 0.542202 -0.173945 -0.984755 0.000000 196 56 253
-0.152068 -1.006036 0.528854 -0.149457 -0.988768 0.000000 194 57 238
-0.046387 -1.011059 0.519616 -0.045831 -0.998949 0.000000 193 61 204
-0.028191 -1.006428 0.547840 -0.028000 -0.999608 0.000000 197 62 170
0.010695 -0.980082 0.528525 0.010911 -0.999940 0.000000 194 64 0
0.061684 -1.008876 0.544015 0.061027 -0.998136 0.000000 196 66 196
0.138820 -0.983857 0.510039 0.139714 -0.990192 0.000000 192 69 86
0.193046 -0.980071 0.551219 0.193258 -0.981148 0.000000 197 71 120
0.220939 -0.972857 0.562659 0.221464 -0.975169 0.000000 199 72 112
0.246554 -0.944078 0.529477 0.252684 -0.967549 0.000000 195 74 229
0.286774 -0.920919 0.550455 0.297318 -0.954779 0.000000 197 76 158
0.371270 -0.942148 0.531918 0.366628 -0.930368 0.000000 195 78 208
0.385828 -0.935092 0.520128 0.381417 -0.924403 0.000000 193 79 201
0.493619 -0.865635 0.536011 0.495360 -0.868688 0.000000 195 84 105
0.504902 -0.856643 0.543323 0.507763 -0.861497 0.000000 196 85 91
0.524199 -0.839221 0.552046 0.529770 -0.848141 0.000000 197 86 60
0.557151 -0.817703 0.537805 0.563079 -0.826403 0.000000 196 88 60
0.603625 -0.778628 0.542358 0.612691 -0.790322 0.000000 196 90 33
0.671865 -0.739393 0.542225 0.672503 -0.740094 0.000000 196 93 121
0.712337 -0.764287 0.560552 0.681808 -0.731531 0.000000 198 94 156
0.729709 -0.707886 0.525203 0.717758 -0.696293 0.000000 194 96 233
0.778712 -0.623556 0.569411 0.780582 -0.625054 0.000000 200 100 112
0.773729 -0.601387 0.537917 0.789551 -0.613685 0.000000 196 100 0
0.809584 -0.600579 0.555309 0.803136 -0.595796 0.000000 198 101 178
0.854050 -0.512875 0.553722 0.857296 -0.514824 0.000000 198 105 103
0.892157 -0.470990 0.512357 0.884332 -0.466859 0.000000 192 107 183
0.864307 -0.425679 0.485695 0.897099 -0.441830 0.000000 189 108 151
0.924530 -0.378079 0.586202 0.925595 -0.378514 0.000000 202 111 120
0.932713 -0.344729 0.539835 0.937984 -0.346678 0.000000 196 113 91
0.957034 -0.270334 0.543467 0.962344 -0.271834 0.000000 196 116 92
0.955719 -0.257795 0.553079 0.965492 -0.260431 0.000000 198 116 62
0.977085 -0.218722 0.553812 0.975849 -0.218445 0.000000 198 118 135
1.022513 -0.158428 0.486135 0.988209 -0.153113 0.000000 189 121 92
1.010979 -0.125269 0.539141 0.992411 -0.122968 0.000000 196 122 246
1.008419 -0.057853 0.505025 0.998358 -0.057276 0.000000 191 125 191
1.006999 0.001684 0.568956 0.999999 0.001672 0.000000 200 127 172
1.013377 0.065559 0.609825 0.997914 0.064558 0.000000 205 130 226
1.012688 0.111686 0.594032 0.993973 0.109622 0.000000 203 131 247
0.984844 0.195834 0.593808 0.980797 0.195029 0.000000 203 135 153
0.964528 0.231758 0.581811 0.972325 0.233631 0.000000 201 137 76
0.954336 0.227450 0.576643 0.972754 0.231839 0.000000 201 136 6
0.940626 0.265236 0.587051 0.962468 0.271395 0.000000 202 138 239
0.900293 0.341231 0.587884 0.935087 0.354419 0.000000 202 142 147
0.952903 0.339147 0.575581 0.942110 0.335305 0.000000 200 141 200
0.904028 0.473566 0.593253 0.885821 0.464028 0.000000 203 147 2
0.906250 0.498527 0.582065 0.876180 0.481985 0.000000 201 147 90
0.871494 0.563812 0.608012 0.839612 0.543186 0.000000 205 150 113
0.844258 0.548541 0.601224 0.838546 0.544830 0.000000 204 150 170
0.752974 0.605643 0.595490 0.779219 0.626752 0.000000 203 154 169
0.793642 0.654315 0.627336 0.771583 0.636129 0.000000 207 155 53
0.734325 0.673398 0.597360 0.737021 0.675870 0.000000 203 157 104
0.723964 0.710867 0.565221 0.713531 0.700623 0.000000 199 159 220
0.663231 0.742077 0.583676 0.666386 0.745607 0.000000 201 161 97
0.631317 0.781095 0.589537 0.628598 0.777731 0.000000 202 163 155
0.572422 0.804292 0.588920 0.579848 0.814725 0.000000 202 166 45
0.532802 0.857569 0.558943 0.527733 0.849410 0.000000 198 168 188
0.505106 0.850525 0.572091 0.510618 0.859807 0.000000 200 169 58
0.429766 0.882765 0.579917 0.437723 0.899110 0.000000 201 172 11
0.373171 0.922052 0.616493 0.375157 0.926961 0.000000 206 175 93
0.350750 0.904832 0.566396 0.361436 0.932397 0.000000 199 176 196
0.283789 0.939275 0.595011 0.289223 0.957262 0.000000 203 179 7
0.246724 0.968270 0.620184 0.246919 0.969036 0.000000 206 181 122
0.239255 0.960327 0.573954 0.241749 0.970339 0.000000 200 181 61
0.162201 0.978674 0.594737 0.163505 0.986543 0.000000 203 184 76
0.155594 0.984615 0.582752 0.156088 0.987743 0.000000 201 184 107
0.051303 1.003500 0.587542 0.051057 0.998696 0.000000 202 189 158
0.001927 0.987443 0.586190 0.001951 0.999998 0.000000 202 191 47
-0.056398 1.033426 0.601758 -0.054493 0.998514 0.000000 204 193 94
-0.111916 1.023216 0.616491 -0.108728 0.994071 0.000000 206 195 58
-0.148275 0.991812 0.617076 -0.147856 0.989009 0.000000 206 197 145
-0.205134 0.982245 0.594931 -0.204431 0.978881 0.000000 203 199 149
-0.259381 0.928349 0.577959 -0.269094 0.963114 0.000000 201 202 154
-0.303281 0.957895 0.584082 -0.301844 0.953357 0.000000 201 203 157
-0.328781 0.949236 0.586487 -0.327288 0.944925 0.000000 202 204 156
-0.363363 0.956821 0.598090 -0.355023 0.934858 0.000000 203 205 21
-0.398836 0.900322 0.585447 -0.405030 0.914303 0.000000 202 208 30
-0.482249 0.840351 0.578039 -0.497732 0.867331 0.000000 201 212 186
-0.513634 0.842719 0.555848 -0.520446 0.853895 0.000000 198 213 44
-0.562539 0.822862 0.597616 -0.564361 0.825528 0.000000 203 215 106
-0.598791 0.829712 0.583386 -0.585205 0.810886 0.000000 201 216 19
-0.639633 0.761481 0.564138 -0.643185 0.765711 0.000000 199 219 92
-0.681526 0.737867 0.587503 -0.678505 0.734596 0.000000 202 221 155
-0.725298 0.683413 0.573210 -0.727810 0.685779 0.000000 200 224 105
-0.715827 0.704025 0.583925 -0.712960 0.701205 0.000000 201 223 153
-0.786894 0.616739 0.588500 -0.787064 0.616872 0.000000 202 228 126
-0.850055 0.597253 0.581943 -0.818229 0.574892 0.000000 201 230 119
-0.851585 0.551064 0.574522 -0.839553 0.543278 0.000000 200 231 218
-0.869953 0.519037 0.567427 -0.858768 0.512364 0.000000 199 233 210
-0.859849 0.446796 0.562325 -0.887354 0.461089 0.000000 199 235 186
-0.928846 0.462306 0.587317 -0.895242 0.445581 0.000000 202 236 110
-0.922169 0.401351 0.584116 -0.916922 0.399067 0.000000 201 238 163
-0.935987 0.329034 0.588181 -0.943406 0.331641 0.000000 202 241 77
-0.962593 0.283706 0.627929 -0.959206 0.282708 0.000000 207 243 150
-0.976842 0.240599 0.590808 -0.970981 0.239155 0.000000 202 245 165
-0.989598 0.166000 0.559333 -0.986221 0.165434 0.000000 198 248 149
-1.026747 0.130221 0.590823 -0.992053 0.125821 0.000000 202 249 94
-0.987938 0.068124 0.591858 -0.997631 0.068793 0.000000 202 252 65
-1.003344 -0.026220 0.600883 -0.999659 -0.026123 0.000000 204 1 150
-0.997710 -0.025794 0.603118 -0.999666 -0.025845 0.000000 204 1 115
-0.997664 -0.072068 0.607105 -0.997401 -0.072049 0.000000 204 2 129
-0.971328 -0.156837 0.607026 -0.987214 -0.159402 0.000000 204 6 24
-0.995806 -0.171395 0.594706 -0.985509 -0.169623 0.000000 203 6 194
-0.989409 -0.237371 0.573013 -0.972407 -0.233292 0.000000 200 9 238
-0.967395 -0.263765 0.593381 -0.964781 -0.263053 0.000000 203 10 144
-0.973718 -0.344441 0.576891 -0.942754 -0.333488 0.000000 201 13 80
-0.945446 -0.400255 0.557578 -0.920877 -0.389854 0.000000 198 16 41
-0.895852 -0.379941 0.637926 -0.920625 -0.390447 0.000000 208 16 212
-0.891904 -0.469183 0.577298 -0.885017 -0.465560 0.000000 201 19 177
-0.857844 -0.493614 0.605880 -0.866752 -0.498740 0.000000 204 21 61
-0.867074 -0.558133 0.605265 -0.840857 -0.541258 0.000000 204 23 70
-0.816075 -0.562327 0.561199 -0.823441 -0.567403 0.000000 199 24 70
-0.803841 -0.623350 0.547210 -0.790237 -0.612801 0.000000 197 26 237
-0.777495 -0.683997 0.589369 -0.750809 -0.660520 0.000000 202 29 98
-0.747093 -0.734515 0.589688 -0.713084 -0.701079 0.000000 202 31 175
-0.682194 -0.715653 0.597762 -0.689983 -0.723825 0.000000 203 32 55
-0.616906 -0.782366 0.583474 -0.619179 -0.785250 0.000000 201 36 104
-0.603592 -0.793329 0.590927 -0.605504 -0.795842 0.000000 202 37 107
-0.541760 -0.837337 0.583741 -0.543219 -0.839591 0.000000 201 40 110
-0.526008 -0.851857 0.578661 -0.525393 -0.850860 0.000000 201 41 134
-0.445940 -0.881585 0.578102 -0.451377 -0.892333 0.000000 201 44 50
-0.412043 -0.941335 0.608459 -0.400989 -0.916083 0.000000 205 47 47
-0.379770 -0.913673 0.604951 -0.383816 -0.923409 0.000000 204 47 60
-0.342823 -0.926622 0.571791 -0.346984 -0.937871 0.000000 200 49 51
-0.311649 -1.007009 0.564998 -0.295645 -0.955298 0.000000 199 51 216
-0.235813 -0.949052 0.566442 -0.241140 -0.970490 0.000000 199 53 243
-0.217307 -1.002185 0.589043 -0.211909 -0.977289 0.000000 202 55 33
-0.138271 -0.993917 0.607502 -0.137790 -0.990461 0.000000 204 58 149
-0.071228 -0.985252 0.553763 -0.072106 -0.997397 0.000000 198 60 49
-0.072028 -1.000281 0.588900 -0.071821 -0.997418 0.000000 202 60 145
0.006105 -0.984739 0.592531 0.006200 -0.999981 0.000000 203 64 30
0.076364 -1.006370 0.584136 0.075663 -0.997133 0.000000 201 66 186
0.105651 -1.001695 0.568043 0.104890 -0.994484 0.000000 199 68 173
0.173298 -0.948630 0.590734 0.179708 -0.983720 0.000000 202 71 157
0.227496 -0.989119 0.578496 0.224146 -0.974556 0.000000 201 72 222
0.251985 -0.925343 0.565120 0.262748 -0.964865 0.000000 199 74 123
0.319443 -0.958496 0.591793 0.316178 -0.948700 0.000000 202 76 193
0.373623 -0.954702 0.608799 0.364436 -0.931228 0.000000 205 78 32
0.371464 -0.883780 0.579232 0.387477 -0.921879 0.000000 201 79 121
0.439374 -0.905621 0.625888 0.436503 -0.899703 0.000000 207 82 169
0.526086 -0.879650 0.592414 0.513272 -0.858226 0.000000 203 85 30
0.519410 -0.840687 0.575219 0.525612 -0.850725 0.000000 200 86 52
0.606459 -0.827040 0.571719 0.591340 -0.806422 0.000000 200 89 34
0.603848 -0.786420 0.589935 0.609019 -0.793155 0.000000 202 90 73
0.620676 -0.728944 0.570835 0.648299 -0.761386 0.000000 200 92 112
0.684728 -0.688221 0.559276 0.705305 -0.708904 0.000000 198 95 198
0.727378 -0.687476 0.560857 0.726760 -0.686892 0.000000 199 96 132
0.771960 -0.627932 0.570476 0.775763 -0.631025 0.000000 200 99 96
0.798594 -0.580492 0.602597 0.808882 -0.587971 0.000000 204 101 46
0.878160 -0.579629 0.622225 0.834590 -0.550871 0.000000 206 103 204
0.871167 -0.513470 0.577175 0.861494 -0.507769 0.000000 201 105 199
0.905988 -0.487424 0.617111 0.880640 -0.473787 0.000000 206 107 54
0.872875 -0.474660 0.555357 0.878510 -0.477724 0.000000 198 107 86
0.916820 -0.354304 0.552010 0.932772 -0.360468 0.000000 197 112 18
0.955766 -0.358345 0.559837 0.936351 -0.351066 0.000000 198 112 3
0.917981 -0.335995 0.612999 0.939074 -0.343715 0.000000 205 113 241
0.982400 -0.262117 0.610986 0.966200 -0.257794 0.000000 205 116 234
0.979704 -0.187740 0.586026 0.982130 -0.188204 0.000000 202 119 111
0.997053 -0.172460 0.610986 0.985368 -0.170439 0.000000 205 120 203
0.985009 -0.093805 0.601824 0.995496 -0.094803 0.000000 204 123 60
0.988082 -0.081781 0.615142 0.996592 -0.082485 0.000000 205 124 73
0.971172 0.016264 0.659816 0.999860 0.016744 0.000000 211 128 201
0.982573 0.024008 0.650838 0.999702 0.024426 0.000000 210 128 18
0.988905 0.093539 0.618819 0.995556 0.094169 0.000000 206 131 84
0.993128 0.138433 0.638809 0.990424 0.138056 0.000000 208 133 144
1.016588 0.199217 0.626434 0.981335 0.192308 0.000000 207 135 100
0.987813 0.253455 0.658819 0.968624 0.248532 0.000000 211 137 253
0.988002 0.285938 0.652090 0.960581 0.278002 0.000000 210 138 53
0.945926 0.346632 0.623715 0.938943 0.344073 0.000000 207 141 174
0.936548 0.360531 0.646387 0.933239 0.359257 0.000000 209 142 150
0.867432 0.443264 0.638751 0.890472 0.455038 0.000000 208 146 219
0.863817 0.482261 0.640770 0.873141 0.487467 0.000000 209 148 59
0.836696 0.531945 0.644095 0.843889 0.536518 0.000000 209 150 73
0.815176 0.568810 0.623105 0.820088 0.572237 0.000000 206 152 89
0.775815 0.609509 0.636462 0.786348 0.617784 0.000000 208 154 42
0.786296 0.663948 0.634655 0.764047 0.645161 0.000000 208 155 57
0.748415 0.739172 0.650067 0.711486 0.702700 0.000000 210 159 202
0.725678 0.715629 0.636114 0.712019 0.702160 0.000000 208 159 249
0.666155 0.762415 0.637504 0.657968 0.753046 0.000000 208 162 206
0.605549 0.794293 0.687654 0.606280 0.795251 0.000000 215 164 119
0.555097 0.860812 0.656820 0.541944 0.840415 0.000000 211 168 26
0.513064 0.831237 0.652494 0.525236 0.850957 0.000000 210 168 236
0.509675 0.855795 0.638385 0.511686 0.859172 0.000000 208 169 102
0.469927 0.890066 0.661203 0.466891 0.884315 0.000000 211 171 168
0.410845 0.878280 0.657866 0.423716 0.905795 0.000000 211 173 190
0.340653 0.927469 0.609529 0.344773 0.938686 0.000000 205 176 51
0.340152 0.949058 0.639121 0.337394 0.941363 0.000000 208 177 179
0.218919 0.974416 0.627014 0.219203 0.975679 0.000000 207 182 119
0.230689 0.969614 0.628354 0.231458 0.972845 0.000000 207 181 106
0.166559 0.982874 0.641615 0.167079 0.985943 0.000000 209 184 107
0.092395 0.991831 0.621251 0.092754 0.995689 0.000000 206 187 102
0.048588 1.012739 0.654729 0.047921 0.998851 0.000000 210 189 216
0.039227 0.972281 0.621010 0.040312 0.999187 0.000000 206 189 212
-0.019351 0.975927 0.666781 -0.019824 0.999803 0.000000 212 192 232
-0.097180 0.978492 0.618969 -0.098830 0.995104 0.000000 206 195 21
-0.111577 1.008793 0.666303 -0.109934 0.993939 0.000000 212 195 222
-0.163383 0.974805 0.625200 -0.165300 0.986243 0.000000 207 197 53
-0.229903 1.003614 0.601792 -0.223292 0.974752 0.000000 204 200 60
-0.276843 0.964103 0.645130 -0.275997 0.961158 0.000000 209 202 147
-0.332535 0.934099 0.682206 -0.335378 0.942084 0.000000 214 205 73
-0.389780 0.933416 0.673037 -0.385337 0.922776 0.000000 213 207 201
-0.407161 0.901771 0.632207 -0.411511 0.911405 0.000000 208 208 60
-0.503807 0.894277 0.619066 -0.490835 0.871252 0.000000 206 212 39
-0.512849 0.840678 0.669479 -0.520785 0.853688 0.000000 212 213 30
-0.548114 0.854327 0.641379 -0.539993 0.841670 0.000000 209 214 223
-0.602613 0.840554 0.628877 -0.582657 0.812718 0.000000 207 216 89
-0.624960 0.784061 0.661535 -0.623302 0.781981 0.000000 211 218 144
-0.671603 0.733086 0.633129 -0.675510 0.737350 0.000000 208 221 90
-0.705301 0.701962 0.649527 -0.708782 0.705427 0.000000 210 223 96
-0.717074 0.685778 0.638715 -0.722702 0.691160 0.000000 208 224 77
-0.774412 0.603754 0.652695 -0.788644 0.614850 0.000000 210 228 12
-0.806964 0.628167 0.655080 -0.789102 0.614263 0.000000 211 228 15
-0.822993 0.537745 0.627774 -0.837140 0.546989 0.000000 207 231 19
-0.882062 0.489077 0.618337 -0.874560 0.484917 0.000000 206 234 182
-0.857641 0.461473 0.651226 -0.880614 0.473834 0.000000 210 234 218
-0.921051 0.428992 0.615495 -0.906496 0.422213 0.000000 205 237 229
-0.892636 0.352206 0.639477 -0.930209 0.367031 0.000000 209 239 127
-0.958051 0.332535 0.673695 -0.944711 0.327905 0.000000 213 241 217
-0.962335 0.256547 0.653440 -0.966254 0.257592 0.000000 210 244 101
-0.977487 0.203324 0.614264 -0.979044 0.203648 0.000000 205 246 117
-0.993127 0.198543 0.659558 -0.980596 0.196038 0.000000 211 246 208
-0.992917 0.110319 0.669676 -0.993884 0.110427 0.000000 212 250 121
-1.032645 0.068757 0.654234 -0.997791 0.066436 0.000000 210 252 94
-1.013940 0.026247 0.610030 -0.999665 0.025877 0.000000 205 253 218
-1.000357 -0.029825 0.636449 -0.999556 -0.029801 0.000000 208 1 132
-1.012740 -0.049669 0.616765 -0.998800 -0.048985 0.000000 206 1 216
-1.001084 -0.133633 0.633591 -0.991208 -0.132315 0.000000 208 5 191
-1.005770 -0.175692 0.656109 -0.985083 -0.172078 0.000000 211 7 5
-0.961969 -0.223468 0.646970 -0.974063 -0.226277 0.000000 209 9 48
-0.957778 -0.257725 0.601556 -0.965651 -0.259844 0.000000 204 10 75
-0.960806 -0.295038 0.604117 -0.955945 -0.293546 0.000000 204 12 159
-0.903345 -0.374225 0.626010 -0.923862 -0.382725 0.000000 207 15 242
-0.909451 -0.429625 0.661821 -0.904186 -0.427138 0.000000 211 17 164
-0.877715 -0.474167 0.658785 -0.879821 -0.475305 0.000000 211 20 112
-0.847124 -0.499156 0.636791 -0.861557 -0.507661 0.000000 208 21 20
-0.836288 -0.526337 0.613477 -0.846331 -0.532657 0.000000 205 22 51
-0.779292 -0.581254 0.633986 -0.801584 -0.597882 0.000000 208 26 207
-0.794886 -0.619556 0.609086 -0.788721 -0.614751 0.000000 205 26 177
-0.745515 -0.669082 0.645773 -0.744227 -0.667926 0.000000 209 29 138
-0.699730 -0.679664 0.647358 -0.717317 -0.696747 0.000000 210 31 228
-0.649229 -0.735464 0.620011 -0.661788 -0.749691 0.000000 206 34 6
-0.614648 -0.755315 0.684784 -0.631183 -0.775634 0.000000 214 36 217
-0.622997 -0.786132 0.644988 -0.621096 -0.783734 0.000000 209 36 147
-0.581542 -0.823206 0.624555 -0.576985 -0.816755 0.000000 207 38 177
-0.540553 -0.833908 0.616912 -0.543936 -0.839127 0.000000 206 40 87
-0.482381 -0.915262 0.635821 -0.466249 -0.884653 0.000000 208 44 92
-0.426312 -0.877167 0.653236 -0.437119 -0.899404 0.000000 210 45 226
-0.360699 -0.918817 0.651733 -0.365420 -0.930843 0.000000 210 48 45
-0.367841 -0.943220 0.625062 -0.363332 -0.931660 0.000000 207 48 206
-0.305064 -0.955175 0.635238 -0.304240 -0.952595 0.000000 208 51 144
-0.229161 -0.972278 0.688276 -0.229409 -0.973330 0.000000 215 54 120
-0.171996 -0.941626 0.625117 -0.179686 -0.983724 0.000000 207 56 111
-0.158613 -0.957825 0.631775 -0.163372 -0.986565 0.000000 208 57 198
-0.094868 -0.962345 0.651377 -0.098104 -0.995176 0.000000 210 59 174
-0.038586 -0.974442 0.653270 -0.039567 -0.999217 0.000000 210 62 226
0.065511 -0.970879 0.651250 0.067323 -0.997731 0.000000 210 66 212
0.063638 -0.988867 0.628736 0.064222 -0.997936 0.000000 207 66 69
0.118346 -0.979567 0.647607 0.119942 -0.992781 0.000000 210 68 42
0.145184 -0.983589 0.674896 0.146024 -0.989281 0.000000 213 69 90
0.210406 -0.955302 0.633155 0.215095 -0.976593 0.000000 208 72 245
0.262459 -0.973986 0.636020 0.260188 -0.965558 0.000000 208 74 183
0.313210 -0.915404 0.661508 0.323730 -0.946150 0.000000 211 77 177
0.315635 -0.904642 0.697315 0.329430 -0.944180 0.000000 216 77 117
0.365038 -0.920798 0.646575 0.368533 -0.929615 0.000000 209 79 67
0.460118 -0.878930 0.670131 0.463791 -0.885945 0.000000 212 83 77
0.493518 -0.876060 0.669016 0.490816 -0.871263 0.000000 212 84 162
0.525955 -0.862152 0.630016 0.520790 -0.853685 0.000000 207 85 190
0.571494 -0.789921 0.627030 0.586161 -0.810194 0.000000 207 89 224
0.684852 -0.766066 0.668707 0.666484 -0.745520 0.000000 212 93 47
0.688947 -0.760699 0.655042 0.671286 -0.741198 0.000000 211 93 39
0.683192 -0.780370 0.661264 0.658705 -0.752401 0.000000 211 92 108
0.717471 -0.668201 0.654040 0.731787 -0.681534 0.000000 210 97 2
0.746494 -0.637333 0.650472 0.760523 -0.649311 0.000000 210 98 9
0.809091 -0.607181 0.609641 0.799828 -0.600229 0.000000 205 101 201
0.806779 -0.553091 0.615937 0.824790 -0.565439 0.000000 206 103 245
0.863436 -0.507631 0.639715 0.862053 -0.506818 0.000000 209 105 137
0.922245 -0.505104 0.621150 0.877070 -0.480362 0.000000 206 107 199
0.911790 -0.455344 0.636588 0.894643 -0.446781 0.000000 208 108 249
0.909543 -0.412712 0.668983 0.910637 -0.413208 0.000000 212 110 119
0.901617 -0.340846 0.623447 0.935392 -0.353614 0.000000 206 112 154
0.943496 -0.304882 0.661214 0.951553 -0.307486 0.000000 211 114 73
0.955894 -0.275702 0.667507 0.960833 -0.277127 0.000000 212 116 94
0.995982 -0.173715 0.638535 0.985128 -0.171822 0.000000 208 120 197
1.005784 -0.114450 0.615543 0.993588 -0.113062 0.000000 205 122 205
1.000195 -0.103033 0.619729 0.994736 -0.102471 0.000000 206 123 162
1.012800 -0.028884 0.622071 0.999594 -0.028508 0.000000 206 126 211
0.970174 0.001936 0.672229 0.999998 0.001995 0.000000 213 127 194
0.995762 0.050542 0.661512 0.998714 0.050692 0.000000 211 129 108
0.970573 0.107157 0.686993 0.993960 0.109739 0.000000 215 131 234
0.969118 0.160403 0.707493 0.986578 0.163293 0.000000 217 134 14
0.996258 0.209514 0.716699 0.978594 0.205799 0.000000 218 135 242
0.942538 0.260051 0.686775 0.963982 0.265967 0.000000 215 138 242
0.958510 0.294762 0.685718 0.955825 0.293937 0.000000 214 139 145
0.939216 0.358941 0.717210 0.934109 0.356989 0.000000 218 142 162
0.904817 0.392832 0.704308 0.917280 0.398243 0.000000 217 144 40
0.873698 0.414936 0.699633 0.903306 0.428998 0.000000 216 145 175
0.851327 0.471144 0.699804 0.874948 0.484216 0.000000 216 148 212
0.847242 0.523435 0.685034 0.850736 0.525594 0.000000 214 149 101
0.831453 0.578685 0.672515 0.820774 0.571253 0.000000 213 152 210
0.782263 0.642529 0.680622 0.772748 0.634713 0.000000 214 155 205
0.754809 0.651672 0.705707 0.756927 0.653500 0.000000 217 156 109
0.744742 0.679114 0.717158 0.738914 0.673800 0.000000 218 157 177
0.716592 0.716619 0.702502 0.707094 0.707120 0.000000 217 159 213
0.617144 0.702534 0.679844 0.659973 0.751289 0.000000 214 161 226
0.599500 0.820685 0.686956 0.589868 0.807499 0.000000 215 165 231
0.582974 0.787937 0.673107 0.594777 0.803890 0.000000 213 165 0
0.550982 0.850688 0.708718 0.543625 0.839329 0.000000 217 167 213
0.483207 0.832584 0.686676 0.501958 0.864892 0.000000 215 169 146
0.455311 0.918503 0.723126 0.444136 0.895959 0.000000 219 172 31
0.394263 0.923217 0.692452 0.392740 0.919650 0.000000 215 174 152
0.340782 0.958778 0.694842 0.334908 0.942251 0.000000 216 177 239
0.319301 0.957037 0.717004 0.316485 0.948597 0.000000 218 178 184
0.285446 0.943068 0.712387 0.289699 0.957118 0.000000 218 179 33
0.214376 0.992737 0.651475 0.211079 0.977469 0.000000 210 182 227
0.169060 0.977618 0.674284 0.170402 0.985375 0.000000 213 184 77
0.112343 0.975258 0.699612 0.114437 0.993431 0.000000 216 186 10
0.087829 0.965937 0.651765 0.090553 0.995892 0.000000 210 187 192
-0.022545 0.968352 0.723134 -0.023276 0.999729 0.000000 219 192 184
-0.030863 1.020353 0.705708 -0.030233 0.999543 0.000000 217 192 4
-0.112768 1.006455 0.724000 -0.111348 0.993781 0.000000 219 195 208
-0.172887 1.017360 0.684223 -0.167535 0.985866 0.000000 214 198 75
-0.195385 0.994902 0.718793 -0.192705 0.981257 0.000000 219 199 216
-0.238792 0.984463 0.672170 -0.235726 0.971820 0.000000 213 200 210
-0.249144 0.986479 0.693775 -0.244870 0.969556 0.000000 215 201 238
-0.307454 0.918108 0.715752 -0.317545 0.948243 0.000000 218 204 181
-0.365751 0.944027 0.668500 -0.361270 0.932461 0.000000 212 206 206
-0.468835 0.861876 0.702224 -0.477847 0.878443 0.000000 217 211 7
-0.426770 0.892330 0.730903 -0.431458 0.902133 0.000000 220 209 58
-0.513096 0.881100 0.699601 -0.503228 0.864154 0.000000 216 212 252
-0.564908 0.865280 0.673515 -0.546672 0.837347 0.000000 213 214 84
-0.632802 0.762760 0.680416 -0.638497 0.769624 0.000000 214 219 70
-0.621884 0.789770 0.687956 -0.618652 0.785665 0.000000 215 218 160
-0.640099 0.741783 0.702834 -0.653309 0.757091 0.000000 217 220 255
-0.686193 0.674588 0.665190 -0.713111 0.701051 0.000000 212 223 143
-0.768275 0.664603 0.709366 -0.756290 0.654236 0.000000 217 226 228
-0.784333 0.626056 0.729942 -0.781554 0.623837 0.000000 220 227 150
-0.826842 0.545848 0.669585 -0.834548 0.550936 0.000000 212 231 68
-0.797092 0.561365 0.681388 -0.817590 0.575801 0.000000 214 230 224
-0.903028 0.526854 0.693575 -0.863742 0.503934 0.000000 215 233 161
-0.890838 0.483410 0.694579 -0.878931 0.476948 0.000000 216 234 213
-0.912289 0.433660 0.672379 -0.903154 0.429317 0.000000 213 236 191
-0.902044 0.363780 0.696027 -0.927423 0.374014 0.000000 216 239 210
-0.948759 0.317933 0.672378 -0.948178 0.317738 0.000000 213 241 131
-0.917417 0.297987 0.683884 -0.951087 0.308924 0.000000 214 242 158
-1.044070 0.248510 0.693189 -0.972823 0.231552 0.000000 215 245 82
-1.011786 0.141394 0.694599 -0.990376 0.138402 0.000000 216 249 9
-1.017616 0.123102 0.686581 -0.992762 0.120095 0.000000 215 250 31
-1.017602 0.097436 0.675700 -0.995447 0.095314 0.000000 213 251 13
-1.008563 0.006040 0.698905 -0.999982 0.005988 0.000000 216 254 182
-0.991743 -0.045386 0.713204 -0.998954 -0.045716 0.000000 218 1 81
-1.035167 -0.069144 0.698474 -0.997777 -0.066646 0.000000 216 2 110
-1.023090 -0.118951 0.695746 -0.993309 -0.115488 0.000000 216 4 62
-0.985106 -0.183473 0.697972 -0.983095 -0.183098 0.000000 216 7 140
-0.983920 -0.237312 0.659729 -0.972124 -0.234467 0.000000 211 9 204
-0.955194 -0.289452 0.694957 -0.957025 -0.290007 0.000000 216 11 115
-0.991388 -0.330043 0.706402 -0.948804 -0.315867 0.000000 217 13 157
-0.952864 -0.362867 0.730653 -0.934530 -0.355885 0.000000 220 14 252
-0.924273 -0.405428 0.699928 -0.915772 -0.401699 0.000000 216 16 186
-0.886536 -0.462593 0.703279 -0.886563 -0.462607 0.000000 217 19 127
-0.869313 -0.487050 0.688017 -0.872406 -0.488782 0.000000 215 20 104
-0.839523 -0.530239 0.693539 -0.845483 -0.534003 0.000000 215 22 82
-0.812191 -0.575182 0.679857 -0.816081 -0.577937 0.000000 214 25 97
-0.785543 -0.639222 0.695922 -0.775646 -0.631168 0.000000 216 27 208
-0.765318 -0.658035 0.682453 -0.758253 -0.651960 0.000000 214 28 186
-0.669093 -0.716552 0.677210 -0.682488 -0.730897 0.000000 213 33 2
-0.638029 -0.707279 0.695326 -0.669821 -0.742523 0.000000 216 33 81
-0.652444 -0.756380 0.685128 -0.653164 -0.757216 0.000000 214 34 120
-0.611709 -0.768540 0.678253 -0.622754 -0.782418 0.000000 213 36 14
-0.562710 -0.825521 0.703191 -0.563237 -0.826295 0.000000 217 39 121
-0.510977 -0.838574 0.673710 -0.520348 -0.853954 0.000000 213 41 12
-0.505721 -0.888294 0.710750 -0.494755 -0.869032 0.000000 218 42 12
-0.413790 -0.898478 0.693273 -0.418315 -0.908302 0.000000 215 46 58
-0.370172 -0.926952 0.682578 -0.370865 -0.928687 0.000000 214 48 115
-0.325974 -0.921270 0.684039 -0.333566 -0.942727 0.000000 214 49 239
-0.293648 -0.944083 0.656945 -0.297005 -0.954876 0.000000 211 51 55
-0.244629 -0.993793 0.728985 -0.239022 -0.971014 0.000000 220 53 21
-0.205562 -0.973279 0.715498 -0.206647 -0.978416 0.000000 218 55 94
-0.135869 -0.989239 0.701640 -0.136069 -0.990699 0.000000 216 58 118
-0.100509 -1.008141 0.681924 -0.099206 -0.995067 0.000000 214 59 211
-0.082245 -1.014077 0.688052 -0.080837 -0.996727 0.000000 215 60 238
0.010797 -1.001490 0.665795 0.010780 -0.999942 0.000000 212 64 137
0.058108 -1.020184 0.717966 0.056866 -0.998382 0.000000 219 66 10
0.139640 -1.005086 0.676533 0.137612 -0.990486 0.000000 213 69 221
0.183811 -0.982195 0.655410 0.183949 -0.982936 0.000000 211 71 122
0.209598 -0.961364 0.690208 0.213018 -0.977048 0.000000 215 72 25
0.254025 -0.943933 0.716279 0.259868 -0.965644 0.000000 218 74 241
0.283757 -0.937098 0.706118 0.289809 -0.957085 0.000000 217 75 251
0.368930 -0.935014 0.719340 0.367034 -0.930208 0.000000 219 79 160
0.400865 -0.944608 0.681102 0.390651 -0.920539 0.000000 214 80 38
0.430997 -0.895973 0.700305 0.433491 -0.901158 0.000000 216 81 90
0.479602 -0.864284 0.707179 0.485214 -0.874396 0.000000 217 84 53
0.509162 -0.812701 0.686478 0.530916 -0.847424 0.000000 215 86 123
0.583593 -0.822390 0.678763 0.578722 -0.815525 0.000000 214 88 181
0.619758 -0.776355 0.686400 0.623880 -0.781520 0.000000 215 91 85
0.676463 -0.734650 0.698402 0.677374 -0.735639 0.000000 216 93 118
0.678480 -0.718031 0.670840 0.686805 -0.726841 0.000000 213 94 50
0.715548 -0.714297 0.707953 0.707725 -0.706488 0.000000 217 95 197
0.749714 -0.629975 0.675759 0.765597 -0.643321 0.000000 213 99 252
0.779020 -0.633669 0.718040 0.775765 -0.631022 0.000000 219 99 154
0.806583 -0.539256 0.671612 0.831320 -0.555794 0.000000 213 103 194
0.826837 -0.527743 0.714337 0.842934 -0.538017 0.000000 218 104 5
0.867453 -0.477635 0.676990 0.875987 -0.482334 0.000000 213 107 65
0.966177 -0.446509 0.701124 0.907752 -0.419508 0.000000 216 109 25
0.976557 -0.392601 0.713602 0.927827 -0.373011 0.000000 218 111 206
0.930200 -0.321121 0.666294 0.945260 -0.326320 0.000000 212 114 25
0.939211 -0.306470 0.708323 0.950669 -0.310209 0.000000 217 114 50
0.973679 -0.271452 0.714080 0.963266 -0.268549 0.000000 218 116 196
0.989333 -0.230535 0.615671 0.973908 -0.226941 0.000000 205 118 228
0.985407 -0.155504 0.674092 0.987776 -0.155878 0.000000 213 121 112
0.988425 -0.085599 0.666740 0.996271 -0.086278 0.000000 212 123 77
1.000621 -0.049932 0.662505 0.998757 -0.049839 0.000000 211 125 139
1.010779 0.018474 0.730449 0.999833 0.018274 0.000000 220 128 197
1.018801 0.025027 0.728325 0.999698 0.024558 0.000000 220 128 249
0.996834 0.051844 0.739707 0.998650 0.051938 0.000000 221 129 115
0.948782 0.172582 0.715140 0.983856 0.178962 0.000000 218 134 157
0.973568 0.198712 0.719871 0.979799 0.199984 0.000000 219 135 86
0.954189 0.238784 0.715667 0.970086 0.242762 0.000000 218 137 23
0.944734 0.289482 0.733839 0.956121 0.292971 0.000000 221 139 51
0.936541 0.351553 0.725589 0.936214 0.351430 0.000000 220 142 129
0.901828 0.386475 0.769473 0.919154 0.393899 0.000000 225 143 7
0.913188 0.429129 0.742343 0.905050 0.425305 0.000000 222 145 184
0.887288 0.493118 0.791856 0.874082 0.485778 0.000000 228 148 223
0.849518 0.549755 0.700586 0.839540 0.543298 0.000000 216 150 203
0.844023 0.585140 0.716820 0.821820 0.569747 0.000000 218 152 43
0.802831 0.599628 0.751963 0.801193 0.598405 0.000000 223 153 140
0.798969 0.626524 0.766145 0.786910 0.617067 0.000000 225 154 225
0.711545 0.672888 0.728020 0.726567 0.687095 0.000000 220 158 252
0.707042 0.727322 0.736990 0.697040 0.717033 0.000000 221 159 218
0.681408 0.711691 0.741077 0.691572 0.722307 0.000000 221 160 33
0.611338 0.769383 0.729264 0.622105 0.782934 0.000000 220 164 17
0.603674 0.816989 0.755747 0.594272 0.804264 0.000000 223 165 228
0.545693 0.856053 0.767392 0.537529 0.843246 0.000000 225 168 224
0.474835 0.867115 0.747000 0.480304 0.877102 0.000000 222 170 54
0.432633 0.867403 0.723484 0.446331 0.894868 0.000000 219 172 188
0.397822 0.910222 0.725865 0.400481 0.916305 0.000000 220 174 85
0.309752 0.943159 0.748181 0.312023 0.950075 0.000000 222 178 81
0.313533 0.958201 0.785830 0.310985 0.950415 0.000000 227 178 179
0.279343 0.980700 0.794982 0.273944 0.961746 0.000000 228 179 253
0.188520 0.970679 0.752850 0.190652 0.981658 0.000000 223 183 56
0.214213 0.960422 0.762902 0.217691 0.976018 0.000000 224 182 25
0.113660 1.008540 0.758580 0.111988 0.993710 0.000000 224 186 222
0.046880 1.041302 0.731017 0.044975 0.998988 0.000000 220 189 141
-0.018674 0.982017 0.740462 -0.019012 0.999819 0.000000 221 192 13
-0.022230 0.968822 0.753204 -0.022939 0.999737 0.000000 223 192 187
-0.103272 1.017017 0.713212 -0.101024 0.994884 0.000000 218 195 13
-0.074869 0.965762 0.703332 -0.077292 0.997009 0.000000 217 194 184
-0.184742 0.962621 0.778833 -0.188476 0.982078 0.000000 226 198 1
-0.227035 0.962425 0.734243 -0.229597 0.973286 0.000000 221 200 56
-0.258562 0.932973 0.725160 -0.267072 0.963677 0.000000 219 202 181
-0.341948 0.940800 0.734693 -0.341601 0.939845 0.000000 221 205 133
-0.388265 0.923809 0.733018 -0.387458 0.921887 0.000000 220 207 140
-0.431554 0.892124 0.739542 -0.435464 0.900206 0.000000 221 209 70
-0.515065 0.878303 0.732942 -0.505864 0.862613 0.000000 220 212 243
-0.487672 0.860791 0.749694 -0.492929 0.870070 0.000000 223 212 59
-0.549219 0.855532 0.763077 -0.540224 0.841521 0.000000 224 214 233
-0.602525 0.796943 0.714597 -0.603081 0.797680 0.000000 218 217 121
-0.615699 0.764772 0.765498 -0.627103 0.778937 0.000000 225 218 11
-0.661396 0.752495 0.735745 -0.660178 0.751109 0.000000 221 220 139
-0.703390 0.694128 0.739015 -0.711778 0.702405 0.000000 221 223 52
-0.732734 0.658094 0.734734 -0.743984 0.668198 0.000000 221 225 31
-0.758109 0.656384 0.760965 -0.756007 0.654564 0.000000 224 226 145
-0.810514 0.600800 0.750604 -0.803359 0.595495 0.000000 223 229 184
-0.833866 0.560111 0.730131 -0.830115 0.557592 0.000000 220 230 156
-0.858036 0.534037 0.738844 -0.848991 0.528408 0.000000 221 232 195
-0.853028 0.459462 0.734388 -0.880411 0.474211 0.000000 221 234 186
-0.918106 0.391070 0.765515 -0.920015 0.391883 0.000000 225 238 114
-0.940668 0.351160 0.742191 -0.936849 0.349735 0.000000 222 240 153
-0.933809 0.349173 0.760525 -0.936660 0.350239 0.000000 224 240 108
-0.983949 0.320406 0.735938 -0.950857 0.309630 0.000000 221 242 93
-0.969345 0.207513 0.774534 -0.977844 0.209333 0.000000 226 246 72
-0.965959 0.138825 0.726974 -0.989830 0.142255 0.000000 220 249 230
-0.955378 0.127120 0.727309 -0.991264 0.131895 0.000000 220 249 153
-0.971903 0.097052 0.753441 -0.995051 0.099363 0.000000 223 250 236
-1.000416 0.045874 0.728699 -0.998950 0.045807 0.000000 220 253 136
-0.994087 -0.034972 0.737646 -0.999382 -0.035159 0.000000 221 1 93
-0.998248 -0.080908 0.728572 -0.996732 -0.080785 0.000000 220 3 137
-0.942503 -0.115841 0.743974 -0.992531 -0.121990 0.000000 222 4 63
-0.988613 -0.155321 0.746784 -0.987882 -0.155206 0.000000 222 6 132
-0.970232 -0.217740 0.742793 -0.975731 -0.218974 0.000000 222 8 91
-0.928753 -0.293103 0.747655 -0.953638 -0.300956 0.000000 222 12 218
-0.914638 -0.316055 0.728150 -0.945162 -0.326602 0.000000 220 13 178
-0.910984 -0.367914 0.719601 -0.927236 -0.374477 0.000000 219 15 15
-0.915106 -0.419820 0.715010 -0.908916 -0.416980 0.000000 218 17 170
-0.897747 -0.430516 0.724652 -0.901681 -0.432402 0.000000 219 18 99
-0.857858 -0.486332 0.743395 -0.869930 -0.493175 0.000000 222 20 39
-0.800634 -0.536528 0.746092 -0.830720 -0.556690 0.000000 222 23 153
-0.816999 -0.598527 0.725682 -0.806690 -0.590975 0.000000 220 25 208
-0.782651 -0.624414 0.708141 -0.781700 -0.623655 0.000000 217 27 135
-0.764948 -0.642534 0.784226 -0.765716 -0.643179 0.000000 227 28 121
-0.722297 -0.670090 0.730611 -0.733104 -0.680116 0.000000 220 30 33
-0.672084 -0.765966 0.767956 -0.659540 -0.751670 0.000000 225 34 248
-0.640286 -0.758633 0.743233 -0.644982 -0.764197 0.000000 222 35 81
-0.610280 -0.792575 0.743146 -0.610091 -0.792331 0.000000 222 37 129
-0.547590 -0.855848 0.738904 -0.538947 -0.842340 0.000000 221 40 229
-0.498867 -0.855804 0.769034 -0.503606 -0.863933 0.000000 225 42 67
-0.460534 -0.878993 0.739444 -0.464093 -0.885786 0.000000 221 44 78
-0.382616 -0.892088 0.719181 -0.394174 -0.919036 0.000000 219 47 197
-0.374213 -0.936500 0.747342 -0.371060 -0.928609 0.000000 222 48 181
-0.332896 -0.941093 0.750052 -0.333484 -0.942756 0.000000 223 49 116
-0.283278 -0.931368 0.759822 -0.290991 -0.956726 0.000000 224 51 215
-0.231897 -0.981865 0.741669 -0.229856 -0.973225 0.000000 222 54 184
-0.165720 -0.997244 0.748421 -0.163930 -0.986472 0.000000 222 57 197
-0.164422 -0.960828 0.725918 -0.168673 -0.985672 0.000000 220 56 223
-0.089034 -0.982181 0.754929 -0.090279 -0.995917 0.000000 223 60 39
-0.032684 -1.027953 0.743100 -0.031779 -0.999495 0.000000 222 62 53
0.011040 -0.993351 0.746422 0.011114 -0.999938 0.000000 222 64 85
0.056854 -0.985657 0.753938 0.057585 -0.998341 0.000000 223 66 46
0.113281 -1.006827 0.756330 0.111807 -0.993730 0.000000 223 68 211
0.157983 -0.927588 0.713710 0.167898 -0.985804 0.000000 218 70 8
0.206822 -0.947207 0.710924 0.213324 -0.976982 0.000000 218 72 190
0.251901 -0.975912 0.765383 0.249927 -0.968265 0.000000 225 74 177
0.313136 -0.905282 0.716574 0.326896 -0.945060 0.000000 218 77 116
0.365285 -0.929427 0.751766 0.365785 -0.930699 0.000000 223 78 118
0.392308 -0.933284 0.756839 0.387508 -0.921866 0.000000 223 79 206
0.463016 -0.917921 0.724098 0.450367 -0.892844 0.000000 219 82 50
0.503118 -0.910737 0.725341 0.483551 -0.875316 0.000000 219 84 129
0.507572 -0.838484 0.752989 0.517854 -0.855469 0.000000 223 85 0
0.571285 -0.789925 0.735437 0.586018 -0.810298 0.000000 221 89 224
0.608340 -0.775400 0.784473 0.617255 -0.786763 0.000000 227 90 35
0.667397 -0.759089 0.720739 0.660292 -0.751009 0.000000 219 93 196
0.669138 -0.746894 0.703218 0.667273 -0.744813 0.000000 217 93 145
0.754043 -0.652253 0.736836 0.756310 -0.654214 0.000000 221 98 108
0.770056 -0.654471 0.757410 0.761977 -0.647604 0.000000 224 98 195
0.756272 -0.617506 0.735287 0.774591 -0.632463 0.000000 221 99 233
0.807712 -0.579291 0.723433 0.812612 -0.582806 0.000000 219 102 89
0.809581 -0.510571 0.727842 0.845839 -0.533437 0.000000 220 104 111
0.870099 -0.487878 0.734461 0.872240 -0.489078 0.000000 221 106 111
0.921998 -0.444331 0.734614 0.900846 -0.434138 0.000000 221 109 21
0.942369 -0.419749 0.759562 0.913481 -0.406881 0.000000 224 110 73
0.919771 -0.325982 0.765296 0.942553 -0.334056 0.000000 225 113 230
0.946957 -0.287668 0.785596 0.956825 -0.290666 0.000000 227 115 61
0.969684 -0.238146 0.713804 0.971142 -0.238504 0.000000 218 117 117
0.986989 -0.232864 0.706689 0.973278 -0.229629 0.000000 217 118 217
0.984504 -0.150087 0.740902 0.988578 -0.150708 0.000000 221 121 101
0.973833 -0.103720 0.745648 0.994376 -0.105908 0.000000 222 123 252
0.976546 -0.057678 0.743170 0.998260 -0.058961 0.000000 222 125 245
1.012694 0.021735 0.800634 0.999770 0.021457 0.000000 229 128 209
1.015179 0.045971 0.782936 0.998976 0.045237 0.000000 227 129 230
0.966244 0.095391 0.770622 0.995162 0.098246 0.000000 225 131 199
0.987935 0.133633 0.777312 0.990975 0.134044 0.000000 226 132 107
0.973597 0.183132 0.800277 0.982765 0.184857 0.000000 229 135 68
0.959256 0.240774 0.780191 0.969914 0.243450 0.000000 226 137 57
0.942275 0.324933 0.780845 0.945370 0.326000 0.000000 227 140 106
0.898413 0.359950 0.787424 0.928268 0.371912 0.000000 227 142 179
0.925211 0.420875 0.777020 0.910246 0.414067 0.000000 226 144 232
0.885482 0.426439 0.781795 0.900963 0.433895 0.000000 227 145 17
0.888585 0.504064 0.827831 0.869798 0.493407 0.000000 233 148 9
0.822077 0.516873 0.784340 0.846572 0.532274 0.000000 227 150 200
0.852342 0.560201 0.841934 0.835664 0.549240 0.000000 234 151 254
0.829126 0.607466 0.801693 0.806665 0.591009 0.000000 229 153 49
0.736250 0.641067 0.796963 0.754174 0.656674 0.000000 229 156 232
0.727207 0.665442 0.778154 0.737742 0.675083 0.000000 226 157 36
0.668744 0.686912 0.826819 0.697568 0.716519 0.000000 232 159 121
0.628922 0.745247 0.781104 0.644943 0.764230 0.000000 227 162 226
0.628706 0.754910 0.828269 0.639953 0.768414 0.000000 233 163 15
0.601245 0.801452 0.780359 0.600100 0.799925 0.000000 226 165 139
0.527933 0.861560 0.800529 0.522476 0.852654 0.000000 229 168 194
0.504283 0.887882 0.766551 0.493865 0.869538 0.000000 225 170 5
0.410990 0.926230 0.821952 0.405588 0.914056 0.000000 232 174 212
0.386618 0.882351 0.822804 0.401332 0.915933 0.000000 232 174 150
0.337729 0.921499 0.789596 0.344117 0.938927 0.000000 228 176 9
0.322279 0.940967 0.794257 0.324020 0.946050 0.000000 228 177 93
0.300969 0.932777 0.807522 0.307071 0.951687 0.000000 230 178 0
0.210920 0.952302 0.810663 0.216244 0.976339 0.000000 230 182 227
