ply
format ascii 1.0
element vertex 225
property float x
property float y
property float z
property float nx
property float ny
property float nz
property uchar red
property uchar green
property uchar blue
end_header
-1.000000 -1.000000 -0.004392 -0.012990 -0.003613 0.999909 255 0 0
-0.857143 -1.000000 0.003802 -0.008277 -0.019869 0.999768 255 1 0
-0.714286 -1.000000 -0.002530 -0.009044 0.012225 0.999884 255 2 0
-0.571429 -1.000000 0.005892 -0.004675 -0.024398 0.999691 255 3 0
-0.428571 -1.000000 0.018054 -0.009271 0.010283 0.999904 255 4 0
-0.285714 -1.000000 0.032416 -0.008006 -0.012822 0.999886 255 5 0
-0.142857 -1.000000 -0.001974 -0.003059 0.000534 0.999995 255 6 0
0.000000 -1.000000 -0.002111 -0.003053 -0.007247 0.999969 255 7 0
0.142857 -1.000000 -0.011798 0.011126 -0.007628 0.999909 255 9 0
0.285714 -1.000000 -0.004420 -0.006266 0.010824 0.999922 255 10 0
0.428571 -1.000000 0.022414 0.002925 -0.021134 0.999772 255 11 0
0.571429 -1.000000 0.003775 0.003189 0.012608 0.999915 255 12 0
0.714286 -1.000000 -0.001588 -0.014109 -0.004452 0.999891 255 13 0
0.857143 -1.000000 -0.004858 -0.004626 -0.006284 0.999970 255 14 0
1.000000 -1.000000 -0.021836 -0.008637 -0.004756 0.999951 255 15 0
-1.000000 -0.857143 -0.005869 0.004057 0.012912 0.999908 255 17 0
-0.857143 -0.857143 0.013771 0.002180 -0.010873 0.999939 255 18 0
-0.714286 -0.857143 0.014434 0.002071 0.009229 0.999955 255 19 0
-0.571429 -0.857143 0.008691 0.009451 -0.001245 0.999955 255 20 0
-0.428571 -0.857143 0.009437 0.008317 -0.007651 0.999936 255 21 0
-0.285714 -0.857143 -0.018384 0.003595 -0.019637 0.999801 255 22 0
-0.142857 -0.857143 -0.007551 -0.010187 0.001011 0.999948 255 23 0
0.000000 -0.857143 0.012034 0.000056 0.009064 0.999959 255 25 0
0.142857 -0.857143 0.005743 -0.010664 0.007177 0.999917 255 26 0
0.285714 -0.857143 -0.007722 0.011190 -0.004571 0.999927 255 27 0
0.428571 -0.857143 0.009743 -0.017494 0.005237 0.999833 255 28 0
0.571429 -0.857143 0.004070 -0.006271 -0.001872 0.999979 255 29 0
0.714286 -0.857143 0.008563 0.006257 0.001660 0.999979 255 30 0
0.857143 -0.857143 -0.006100 0.006129 0.012547 0.999903 255 31 0
1.000000 -0.857143 0.009720 -0.006417 -0.015977 0.999852 255 33 0
-1.000000 -0.714286 -0.004155 -0.003303 0.018572 0.999822 255 34 0
-0.857143 -0.714286 0.006149 0.002776 -0.015365 0.999878 255 35 0
-0.714286 -0.714286 0.014331 -0.000964 0.009277 0.999957 255 36 0
-0.571429 -0.714286 -0.004887 0.013847 0.016093 0.999775 255 37 0
-0.428571 -0.714286 -0.019474 0.006586 -0.005999 0.999960 255 38 0
-0.285714 -0.714286 0.003473 0.000649 -0.006504 0.999979 255 39 0
-0.142857 -0.714286 -0.011334 0.002961 -0.010855 0.999937 255 40 0
0.000000 -0.714286 0.005807 0.005099 -0.001237 0.999986 255 42 0
0.142857 -0.714286 -0.005112 0.004672 -0.031000 0.999508 255 43 0
0.285714 -0.714286 -0.001693 -0.009695 -0.010319 0.999900 255 44 0
0.428571 -0.714286 -0.001529 -0.012215 0.002350 0.999923 255 45 0
0.571429 -0.714286 -0.015033 0.003562 0.005566 0.999978 255 46 0
0.714286 -0.714286 -0.008321 0.002529 -0.000716 0.999997 255 47 0
0.857143 -0.714286 -0.003693 0.001224 -0.006701 0.999977 255 48 0
1.000000 -0.714286 0.006245 -0.010465 -0.005130 0.999932 255 50 0
-1.000000 -0.571429 -0.001330 -0.014253 -0.005286 0.999884 255 51 0
-0.857143 -0.571429 0.000124 -0.002927 -0.017717 0.999839 255 52 0
-0.714286 -0.571429 0.015452 0.009999 -0.009189 0.999908 255 53 0
-0.571429 -0.571429 0.012388 0.005000 -0.005312 0.999973 255 54 0
-0.428571 -0.571429 0.002574 0.001667 0.009886 0.999950 255 55 0
-0.285714 -0.571429 0.001938 -0.013194 -0.007415 0.999885 255 56 0
-0.142857 -0.571429 0.008254 -0.000433 -0.017933 0.999839 255 58 0
0.000000 -0.571429 -0.008677 -0.006903 -0.001699 0.999975 255 59 0
0.142857 -0.571429 -0.008146 -0.000950 0.003540 0.999993 255 60 0
0.285714 -0.571429 -0.004918 -0.009521 0.005126 0.999942 255 61 0
0.428571 -0.571429 -0.010735 0.002502 -0.006745 0.999974 255 62 0
0.571429 -0.571429 -0.010443 -0.020418 -0.011625 0.999724 255 63 0
0.714286 -0.571429 -0.005184 -0.015855 0.008954 0.999834 255 64 0
0.857143 -0.571429 0.023592 0.004767 -0.022179 0.999743 255 66 0
1.000000 -0.571429 0.009177 0.002471 0.026074 0.999657 255 67 0
-1.000000 -0.428571 0.007971 0.029246 -0.002670 0.999569 255 68 0
-0.857143 -0.428571 0.009029 0.002146 0.003872 0.999990 255 69 0
-0.714286 -0.428571 0.000720 0.000399 0.006864 0.999976 255 70 0
-0.571429 -0.428571 -0.002610 -0.002032 -0.001584 0.999997 255 71 0
-0.428571 -0.428571 0.003148 -0.021761 -0.011531 0.999697 255 72 0
-0.285714 -0.428571 -0.007928 0.014825 -0.007219 0.999864 255 73 0
-0.142857 -0.428571 0.011231 0.000860 -0.002169 0.999997 255 75 0
0.000000 -0.428571 0.000259 -0.013639 -0.009083 0.999866 255 76 0
0.142857 -0.428571 0.002766 0.014011 0.014261 0.999800 255 77 0
0.285714 -0.428571 -0.013284 0.015729 -0.003375 0.999871 255 78 0
0.428571 -0.428571 0.002778 -0.000034 0.001484 0.999999 255 79 0
0.571429 -0.428571 0.015870 -0.005539 -0.000934 0.999984 255 80 0
0.714286 -0.428571 -0.003758 -0.006856 0.001126 0.999976 255 81 0
0.857143 -0.428571 0.002767 0.007121 0.016646 0.999836 255 83 0
1.000000 -0.428571 -0.000440 -0.011405 0.001638 0.999934 255 84 0
-1.000000 -0.285714 0.002365 0.002193 -0.006426 0.999977 255 85 0
-0.857143 -0.285714 0.002605 -0.010493 -0.007638 0.999916 255 86 0
-0.714286 -0.285714 -0.001780 0.000411 0.003462 0.999994 255 87 0
-0.571429 -0.285714 0.013197 -0.000900 -0.005136 0.999986 255 88 0
-0.428571 -0.285714 -0.020992 0.006306 0.002474 0.999977 255 89 0
-0.285714 -0.285714 0.017459 0.021172 -0.000090 0.999776 255 91 0
-0.142857 -0.285714 -0.012987 0.022749 -0.014127 0.999641 255 92 0
0.000000 -0.285714 0.005804 0.004070 0.015454 0.999872 255 93 0
0.142857 -0.285714 -0.001800 -0.003354 -0.013740 0.999900 255 94 0
0.285714 -0.285714 0.009777 0.016863 0.011146 0.999796 255 95 0
0.428571 -0.285714 0.001561 -0.001226 0.006002 0.999981 255 96 0
0.571429 -0.285714 0.017484 0.007920 -0.014352 0.999866 255 97 0
0.714286 -0.285714 -0.001611 -0.002485 0.013834 0.999901 255 99 0
0.857143 -0.285714 0.007181 -0.016340 0.002041 0.999864 255 100 0
1.000000 -0.285714 0.015661 -0.023772 -0.019753 0.999522 255 101 0
-1.000000 -0.142857 -0.003185 -0.005335 0.006559 0.999964 255 102 0
-0.857143 -0.142857 0.003632 0.005874 0.005056 0.999970 255 103 0
-0.714286 -0.142857 -0.002348 0.002392 0.017003 0.999853 255 104 0
-0.571429 -0.142857 0.004006 0.000618 -0.001855 0.999998 255 105 0
-0.428571 -0.142857 -0.002386 -0.010619 0.012080 0.999871 255 107 0
-0.285714 -0.142857 -0.003712 0.009947 -0.011091 0.999889 255 108 0
-0.142857 -0.142857 0.013242 -0.020363 0.007022 0.999768 255 109 0
0.000000 -0.142857 -0.009175 -0.003375 -0.001717 0.999993 255 110 0
0.142857 -0.142857 0.005976 0.007185 0.004375 0.999965 255 111 0
0.285714 -0.142857 -0.009802 -0.011792 0.003259 0.999925 255 112 0
0.428571 -0.142857 0.019171 -0.006819 0.004622 0.999966 255 113 0
0.571429 -0.142857 -0.002539 0.012630 -0.006084 0.999902 255 114 0
0.714286 -0.142857 0.006867 0.000864 0.004752 0.999988 255 116 0
0.857143 -0.142857 0.002843 -0.000322 0.009806 0.999952 255 117 0
1.000000 -0.142857 0.013618 0.003112 0.002083 0.999993 255 118 0
-1.000000 0.000000 0.000453 -0.001865 -0.004452 0.999988 255 119 0
-0.857143 0.000000 -0.004470 0.009359 0.006175 0.999937 255 120 0
-0.714286 0.000000 -0.002218 -0.003483 -0.013078 0.999908 255 121 0
-0.571429 0.000000 -0.014969 -0.015191 -0.002668 0.999881 255 122 0
-0.428571 0.000000 -0.001398 -0.011468 -0.001098 0.999934 255 124 0
-0.285714 0.000000 -0.003231 0.005506 -0.006699 0.999962 255 125 0
-0.142857 0.000000 0.004740 0.010695 -0.003775 0.999936 255 126 0
0.000000 0.000000 0.004198 0.006079 -0.003261 0.999976 255 127 0
0.142857 0.000000 0.005922 -0.008124 -0.001287 0.999966 255 128 0
0.285714 0.000000 -0.010949 0.005317 0.004925 0.999974 255 129 0
0.428571 0.000000 0.000389 0.013262 -0.009290 0.999869 255 130 0
0.571429 0.000000 0.001843 0.002587 0.011007 0.999936 255 132 0
0.714286 0.000000 -0.036489 -0.013894 -0.009280 0.999860 255 133 0
0.857143 0.000000 0.016511 -0.005959 -0.000915 0.999982 255 134 0
1.000000 0.000000 0.002867 0.019714 -0.007892 0.999775 255 135 0
-1.000000 0.142857 -0.007664 0.010961 -0.016197 0.999809 255 136 0
-0.857143 0.142857 -0.011423 -0.006272 0.000015 0.999980 255 137 0
-0.714286 0.142857 0.009252 -0.004609 0.001926 0.999988 255 138 0
-0.571429 0.142857 -0.014363 -0.002298 -0.011719 0.999929 255 140 0
-0.428571 0.142857 0.001444 0.001504 -0.011507 0.999933 255 141 0
-0.285714 0.142857 -0.011719 -0.005176 0.002676 0.999983 255 142 0
-0.142857 0.142857 0.011098 0.004822 0.006587 0.999967 255 143 0
0.000000 0.142857 -0.000135 0.000401 0.013464 0.999909 255 144 0
0.142857 0.142857 0.000439 -0.010608 0.003240 0.999938 255 145 0
0.285714 0.142857 -0.005605 -0.012949 0.004102 0.999908 255 146 0
0.428571 0.142857 0.002857 0.001604 0.016390 0.999864 255 147 0
0.571429 0.142857 -0.001212 -0.022032 0.019251 0.999572 255 149 0
0.714286 0.142857 0.003417 0.003776 0.018688 0.999818 255 150 0
0.857143 0.142857 0.008185 -0.002056 0.012776 0.999916 255 151 0
1.000000 0.142857 -0.005475 0.013774 -0.003738 0.999898 255 152 0
-1.000000 0.285714 0.004304 -0.019274 0.002821 0.999810 255 153 0
-0.857143 0.285714 0.012076 -0.008199 0.005079 0.999953 255 154 0
-0.714286 0.285714 0.015276 -0.005055 -0.002921 0.999983 255 155 0
-0.571429 0.285714 -0.002657 0.025079 -0.010710 0.999628 255 157 0
-0.428571 0.285714 -0.008078 0.001065 0.004374 0.999990 255 158 0
-0.285714 0.285714 -0.020937 0.002122 -0.011456 0.999932 255 159 0
-0.142857 0.285714 0.011654 -0.007652 0.014038 0.999872 255 160 0
0.000000 0.285714 0.011693 0.000506 0.022400 0.999749 255 161 0
0.142857 0.285714 -0.003424 0.004604 -0.009414 0.999945 255 162 0
0.285714 0.285714 -0.014767 0.010450 -0.000157 0.999945 255 163 0
0.428571 0.285714 -0.000893 0.010812 0.010745 0.999884 255 165 0
0.571429 0.285714 -0.014016 0.015796 0.008637 0.999838 255 166 0
0.714286 0.285714 -0.008302 0.003181 0.019728 0.999800 255 167 0
0.857143 0.285714 -0.016225 -0.000632 -0.006122 0.999981 255 168 0
1.000000 0.285714 0.017228 0.019254 0.014458 0.999710 255 169 0
-1.000000 0.428571 0.000466 0.017471 0.011368 0.999783 255 170 0
-0.857143 0.428571 0.012638 0.002930 -0.000452 0.999996 255 171 0
-0.714286 0.428571 0.001651 0.005449 0.014751 0.999876 255 173 0
-0.571429 0.428571 -0.022445 0.004225 -0.001068 0.999991 255 174 0
-0.428571 0.428571 0.021562 0.005782 0.002555 0.999980 255 175 0
-0.285714 0.428571 -0.003010 -0.016578 -0.001678 0.999861 255 176 0
-0.142857 0.428571 0.010105 -0.003029 -0.002474 0.999992 255 177 0
0.000000 0.428571 0.016198 0.011896 0.011582 0.999862 255 178 0
0.142857 0.428571 -0.002645 -0.003949 -0.001229 0.999991 255 179 0
0.285714 0.428571 0.003994 -0.015841 -0.000721 0.999874 255 181 0
0.428571 0.428571 0.004964 0.011233 -0.006145 0.999918 255 182 0
0.571429 0.428571 -0.015331 -0.003183 0.006444 0.999974 255 183 0
0.714286 0.428571 0.011912 -0.018233 0.014425 0.999730 255 184 0
0.857143 0.428571 -0.010971 0.001110 0.005700 0.999983 255 185 0
1.000000 0.428571 -0.005907 -0.009070 -0.001276 0.999958 255 186 0
-1.000000 0.571429 0.002090 0.004130 -0.000633 0.999991 255 187 0
-0.857143 0.571429 -0.001050 -0.002395 0.007908 0.999966 255 188 0
-0.714286 0.571429 0.003289 0.012288 -0.000777 0.999924 255 190 0
-0.571429 0.571429 -0.000047 0.005180 -0.008918 0.999947 255 191 0
-0.428571 0.571429 -0.011809 0.018528 0.001990 0.999826 255 192 0
-0.285714 0.571429 -0.012935 0.011766 -0.002189 0.999928 255 193 0
-0.142857 0.571429 0.012433 -0.000819 0.025703 0.999669 255 194 0
0.000000 0.571429 -0.003660 -0.008557 -0.005738 0.999947 255 195 0
0.142857 0.571429 -0.007612 -0.004470 0.009256 0.999947 255 196 0
0.285714 0.571429 0.013778 0.002028 -0.019574 0.999806 255 198 0
0.428571 0.571429 -0.003397 0.003579 0.031794 0.999488 255 199 0
0.571429 0.571429 0.007820 -0.003866 -0.001422 0.999992 255 200 0
0.714286 0.571429 0.001964 0.021375 -0.003293 0.999766 255 201 0
0.857143 0.571429 -0.001554 -0.014501 0.001810 0.999893 255 202 0
1.000000 0.571429 0.004430 0.008953 -0.006127 0.999941 255 203 0
-1.000000 0.714286 0.000137 -0.000531 -0.002755 0.999996 255 204 0
-0.857143 0.714286 -0.004626 0.013492 0.001787 0.999907 255 206 0
-0.714286 0.714286 0.000988 -0.001934 0.001764 0.999997 255 207 0
-0.571429 0.714286 0.001647 0.000788 0.011473 0.999934 255 208 0
-0.428571 0.714286 0.010257 0.002101 -0.000531 0.999998 255 209 0
-0.285714 0.714286 -0.001009 -0.011373 -0.009732 0.999888 255 210 0
-0.142857 0.714286 0.006447 0.003886 -0.005704 0.999976 255 211 0
0.000000 0.714286 0.007316 0.012814 -0.005273 0.999904 255 212 0
0.142857 0.714286 -0.003329 -0.016199 0.001121 0.999868 255 214 0
0.285714 0.714286 0.001955 -0.013959 -0.009247 0.999860 255 215 0
0.428571 0.714286 -0.004244 -0.008136 0.009393 0.999923 255 216 0
0.571429 0.714286 0.000465 0.012321 0.006127 0.999905 255 217 0
0.714286 0.714286 0.013633 -0.004465 -0.009348 0.999946 255 218 0
0.857143 0.714286 -0.008280 -0.000840 0.019720 0.999805 255 219 0
1.000000 0.714286 0.026519 0.018393 -0.004795 0.999819 255 220 0
-1.000000 0.857143 0.020988 -0.014157 0.011696 0.999831 255 221 0
-0.857143 0.857143 -0.016770 -0.000021 -0.002750 0.999996 255 223 0
-0.714286 0.857143 -0.005451 0.006849 -0.002296 0.999974 255 224 0
-0.571429 0.857143 0.009743 -0.003552 -0.006377 0.999973 255 225 0
-0.428571 0.857143 0.011159 -0.003610 0.018004 0.999831 255 226 0
-0.285714 0.857143 0.013654 -0.011472 0.011678 0.999866 255 227 0
-0.142857 0.857143 0.010487 0.010271 -0.010115 0.999896 255 228 0
0.000000 0.857143 0.003992 0.005391 -0.004795 0.999974 255 229 0
0.142857 0.857143 0.006581 0.007116 -0.000028 0.999975 255 231 0
0.285714 0.857143 -0.000365 -0.004503 0.007752 0.999960 255 232 0
0.428571 0.857143 -0.011199 -0.007409 -0.000254 0.999973 255 233 0
0.571429 0.857143 0.013625 -0.008721 0.002922 0.999958 255 234 0
0.714286 0.857143 0.003124 -0.015802 0.006839 0.999852 255 235 0
0.857143 0.857143 -0.008721 0.010905 -0.008525 0.999904 255 236 0
1.000000 0.857143 -0.007141 0.013453 0.010869 0.999850 255 237 0
-1.000000 1.000000 -0.011224 0.016016 0.006393 0.999851 255 239 0
-0.857143 1.000000 0.009025 0.005108 0.011013 0.999926 255 240 0
-0.714286 1.000000 0.002562 0.007272 -0.003530 0.999967 255 241 0
-0.571429 1.000000 0.003874 0.001635 0.009629 0.999952 255 242 0
-0.428571 1.000000 -0.004563 -0.000821 -0.005058 0.999987 255 243 0
-0.285714 1.000000 0.008255 0.013585 -0.008281 0.999873 255 244 0
-0.142857 1.000000 -0.000388 -0.010128 -0.004323 0.999939 255 245 0
0.000000 1.000000 -0.017955 0.003918 -0.012261 0.999917 255 247 0
0.142857 1.000000 -0.003823 -0.019290 -0.001166 0.999813 255 248 0
0.285714 1.000000 -0.002994 -0.013015 0.006107 0.999897 255 249 0
0.428571 1.000000 0.005479 -0.018658 0.026316 0.999480 255 250 0
0.571429 1.000000 0.008810 0.000242 0.014411 0.999896 255 251 0
0.714286 1.000000 -0.002569 0.017826 -0.006462 0.999820 255 252 0
0.857143 1.000000 -0.002676 -0.003319 0.004344 0.999985 255 253 0
1.000000 1.000000 0.011787 0.000602 -0.021548 0.999768 255 255 0
