ply
format ascii 1.0
element vertex 100
property float x
property float y
property float z
property float nx
property float ny
property float nz
property uchar red
property uchar green
property uchar blue
end_header
0.000295 -0.014249 -0.009051 0.047153 -0.024400 0.998590 255 0 0
0.103897 0.007013 -0.009128 0.109955 0.077592 0.990903 255 2 0
0.215678 0.003918 -0.007687 0.119420 0.043282 0.991900 255 5 0
0.328227 -0.003020 -0.004305 0.135413 0.011556 0.990722 255 7 0
0.445715 -0.022696 0.016730 -0.011767 -0.092605 0.995633 255 10 0
0.539268 -0.010330 -0.003889 -0.102612 0.115709 0.987969 255 12 0
0.668975 -0.004816 -0.009357 -0.168444 -0.046512 0.984613 255 15 0
0.766902 -0.012941 -0.009700 0.041036 -0.148647 0.988039 255 18 0
0.892969 0.003604 0.007189 -0.007096 0.056608 0.998371 255 20 0
0.993791 -0.010461 0.002578 -0.148884 -0.005095 0.988842 255 23 0
0.004892 0.106697 0.018174 -0.180227 0.182078 0.966626 255 25 0
0.110933 0.109085 0.009070 0.105753 -0.080777 0.991106 255 28 0
0.214379 0.120283 0.000376 0.049806 -0.097980 0.993941 255 30 0
0.351168 0.109904 -0.007322 0.003389 -0.087225 0.996183 255 33 0
0.472659 0.107522 0.005580 -0.023537 0.060319 0.997902 255 36 0
0.542515 0.102473 -0.017830 -0.113643 0.077174 0.990520 255 38 0
0.664567 0.113204 0.006996 -0.174642 -0.151857 0.972851 255 41 0
0.787054 0.100633 0.007826 0.222721 0.110452 0.968605 255 43 0
0.900749 0.114408 0.010967 0.076759 0.077359 0.994044 255 46 0
0.992111 0.104529 -0.005182 -0.192242 -0.096341 0.976607 255 48 0
0.000041 0.229457 0.003256 0.102062 0.141846 0.984613 255 51 0
0.095455 0.229170 0.004676 0.056481 0.079950 0.995197 255 54 0
0.219712 0.222492 0.005927 0.037150 0.126461 0.991276 255 56 0
0.335836 0.222530 -0.004909 -0.076833 -0.014682 0.996936 255 59 0
0.453839 0.218761 0.006515 -0.162674 -0.200888 0.966013 255 61 0
0.549315 0.224366 0.001001 -0.093850 -0.099182 0.990634 255 64 0
0.669022 0.233447 0.000614 0.135365 -0.082363 0.987367 255 66 0
0.777610 0.223251 0.004000 -0.028199 -0.030112 0.999149 255 69 0
0.885289 0.236068 -0.006812 0.015158 -0.145418 0.989254 255 72 0
1.002229 0.200656 -0.000971 0.054835 -0.106754 0.992772 255 74 0
-0.008771 0.341281 -0.011798 -0.151336 0.067469 0.986177 255 77 0
0.112619 0.331696 -0.015038 -0.155323 -0.069063 0.985447 255 79 0
0.225804 0.315015 0.004768 -0.021347 -0.035897 0.999127 255 82 0
0.318086 0.328812 -0.000035 0.034827 -0.054761 0.997892 255 85 0
0.433584 0.321154 -0.015178 -0.045054 0.074364 0.996213 255 87 0
0.561889 0.347075 -0.008768 -0.166600 -0.099134 0.981028 255 90 0
0.643896 0.334972 -0.005880 -0.078640 0.120367 0.989610 255 92 0
0.794721 0.338174 0.017568 0.123317 0.186437 0.974697 255 95 0
0.877302 0.338954 -0.001590 0.038021 -0.007389 0.999250 255 97 0
0.992539 0.332176 0.002381 0.055391 0.014910 0.998353 255 100 0
-0.007841 0.437823 0.001242 -0.099750 -0.071874 0.992413 255 103 0
0.100058 0.448193 0.006605 0.022630 -0.308128 0.951076 255 105 0
0.238479 0.443369 -0.025070 0.130093 0.002009 0.991500 255 108 0
0.352174 0.447127 0.003987 0.052102 -0.173619 0.983434 255 110 0
0.449372 0.440873 0.008501 -0.023991 -0.068631 0.997354 255 113 0
0.542668 0.436507 0.011317 -0.031666 0.086939 0.995710 255 115 0
0.656062 0.448997 0.008893 -0.041683 -0.102430 0.993866 255 118 0
0.784443 0.474695 -0.000354 0.050531 -0.112763 0.992336 255 121 0
0.881921 0.424592 0.004584 0.096255 0.086556 0.991586 255 123 0
1.002593 0.457861 -0.007139 0.116567 0.045212 0.992153 255 126 0
0.011273 0.563627 -0.007102 0.160359 -0.013121 0.986972 255 128 0
0.117677 0.559427 -0.001894 -0.034468 0.036510 0.998739 255 131 0
0.234799 0.555290 0.010439 -0.043169 -0.140448 0.989146 255 133 0
0.330003 0.568676 -0.003960 -0.088400 0.022049 0.995841 255 136 0
0.438674 0.556461 -0.004547 0.010594 -0.070024 0.997489 255 139 0
0.557528 0.544337 -0.003868 0.128259 0.066565 0.989504 255 141 0
0.670306 0.560658 -0.009097 0.117856 0.018351 0.992861 255 144 0
0.772801 0.562575 0.003081 -0.075738 -0.067048 0.994871 255 146 0
0.879431 0.565309 -0.009341 -0.008377 0.032007 0.999453 255 149 0
1.018798 0.559556 -0.006823 -0.013853 -0.116227 0.993126 255 151 0
0.004717 0.691150 0.025088 -0.266081 0.052093 0.962542 255 154 0
0.111045 0.667218 0.000403 0.074985 0.177754 0.981214 255 157 0
0.218454 0.671558 -0.009760 -0.123060 -0.064233 0.990318 255 159 0
0.341204 0.675452 -0.013832 0.004756 -0.020730 0.999774 255 162 0
0.459217 0.670327 0.009830 -0.085293 -0.024106 0.996064 255 164 0
0.558977 0.670999 0.003450 0.040166 0.112202 0.992873 255 167 0
0.659041 0.668832 0.000358 0.054119 0.090461 0.994428 255 170 0
0.767546 0.670247 0.000290 0.069000 -0.043576 0.996664 255 172 0
0.890005 0.670108 0.001662 -0.120006 -0.010930 0.992713 255 175 0
1.009394 0.673060 0.003607 -0.001858 0.142893 0.989736 255 177 0
0.010279 0.803559 -0.001119 -0.081789 -0.133338 0.987690 255 180 0
0.113342 0.767934 -0.002622 -0.152949 -0.108729 0.982234 255 182 0
0.241068 0.773412 0.002084 -0.027930 0.055802 0.998051 255 185 0
0.323124 0.780416 -0.008906 0.172778 0.083406 0.981423 255 188 0
0.441021 0.770349 -0.000675 -0.067489 0.033584 0.997155 255 190 0
0.528175 0.757673 -0.001062 -0.005256 0.039801 0.999194 255 193 0
0.666378 0.773922 0.013643 -0.045999 0.043472 0.997995 255 195 0
0.766318 0.776276 -0.002509 -0.193406 0.084330 0.977488 255 198 0
0.881695 0.792099 0.007378 0.092945 0.251973 0.963261 255 200 0
0.992339 0.787658 -0.008352 0.063637 -0.025338 0.997651 255 203 0
-0.006630 0.872656 -0.007125 0.126383 0.031803 0.991472 255 206 0
0.114210 0.895198 0.000815 0.061326 -0.169653 0.983594 255 208 0
0.225839 0.898550 0.003171 0.086206 0.146757 0.985409 255 211 0
0.334585 0.877248 -0.000955 0.082707 -0.069395 0.994155 255 213 0
0.446610 0.895416 0.008061 0.248971 -0.046854 0.967377 255 216 0
0.561854 0.888090 0.013646 0.026829 0.125228 0.991765 255 218 0
0.686422 0.898868 0.000752 0.073970 -0.015293 0.997143 255 221 0
0.764800 0.894799 0.007652 0.039685 0.284017 0.957998 255 224 0
0.877324 0.885274 -0.002474 0.016748 -0.159221 0.987101 255 226 0
0.983664 0.895155 0.006167 0.018728 -0.057843 0.998150 255 229 0
-0.010507 0.983457 0.006781 -0.009616 -0.029447 0.999520 255 231 0
0.121309 1.007908 0.002563 -0.159918 -0.026766 0.986767 255 234 0
0.223516 1.011889 -0.003955 -0.105962 0.066334 0.992155 255 236 0
0.318394 0.995859 0.003146 0.030729 0.023327 0.999256 255 239 0
0.447598 0.996587 0.007170 0.050493 0.061645 0.996820 255 242 0
0.557075 0.990624 -0.002991 0.010698 0.002932 0.999938 255 244 0
0.659363 1.008465 -0.000740 0.023353 -0.050293 0.998461 255 247 0
0.786427 1.008512 -0.003217 0.012264 0.031643 0.999424 255 249 0
0.900873 0.994475 0.014988 -0.062447 0.017921 0.997887 255 252 0
0.995727 1.000345 -0.027785 -0.023860 0.088294 0.995809 255 255 0
